# .PCD v0.7 - Point Cloud Data file format
VERSION 0.7
FIELDS x y z vp_x vp_y vp_z
SIZE 4 4 4 4 4 4
TYPE F F F F F F
COUNT 1 1 1 1 1 1
WIDTH 933
HEIGHT 1
VIEWPOINT 0 0 0 1 0 0 0
POINTS 933
DATA ascii
0.039999999 0.047670793 0.022463176 0.47704095 0 0
0.039999999 0.048828911 0.02246967 0.47704095 0 0
0.039999999 0.049987704 0.022476321 0.47704095 0 0
0.039999999 0.051147193 0.022483131 0.47704095 0 0
0.039999999 0.052307393 0.022490097 0.47704095 0 0
0.039999999 0.053468321 0.022497224 0.47704095 0 0
0.039999999 0.054629989 0.022504508 0.47704095 0 0
0.039999999 0.055792421 0.022511953 0.47704095 0 0
0.039999999 0.056955628 0.022519557 0.47704095 0 0
0.039999999 0.058119632 0.02252732 0.47704095 0 0
0.039999999 0.059284445 0.022535242 0.47704095 0 0
0.039999999 0.060450085 0.022543326 0.47704095 0 0
0.039999999 0.06161657 0.02255157 0.47704095 0 0
0.039999999 0.062783919 0.022559974 0.47704095 0 0
0.039999999 0.063952141 0.022568539 0.47704095 0 0
0.039999999 0.065121263 0.022577265 0.47704095 0 0
0.039999999 0.066291295 0.022586154 0.47704095 0 0
0.039999999 0.067462258 0.022595203 0.47704095 0 0
0.039999999 0.068634167 0.022604415 0.47704095 0 0
0.039999999 0.069807045 0.02261379 0.47704095 0 0
0.039999999 0.070980899 0.022623328 0.47704095 0 0
0.039999999 0.072155751 0.022633029 0.47704095 0 0
0.039999999 0.073331617 0.022642894 0.47704095 0 0
0.039999999 0.074508525 0.022652922 0.47704095 0 0
0.039999999 0.075686477 0.022663115 0.47704095 0 0
0.039999999 0.076865502 0.022673473 0.47704095 0 0
0.039999999 0.078045607 0.022683995 0.47704095 0 0
0.039999999 0.079226822 0.022694683 0.47704095 0 0
0.039999999 0.00057208556 0.021183738 0.47704095 0 0
0.039999999 0.0017162645 0.021183884 0.47704095 0 0
0.039999999 0.0028604672 0.021184174 0.47704095 0 0
0.039999999 0.004004709 0.02118461 0.47704095 0 0
0.039999999 0.0051490054 0.021185191 0.47704095 0 0
0.039999999 0.0062933727 0.021185916 0.47704095 0 0
0.039999999 0.0074378261 0.021186788 0.47704095 0 0
0.039999999 0.0085823815 0.021187805 0.47704095 0 0
0.039999999 0.0097270552 0.021188967 0.47704095 0 0
0.039999999 0.010871861 0.021190275 0.47704095 0 0
0.039999999 0.012016817 0.021191727 0.47704095 0 0
0.039999999 0.013161938 0.021193326 0.47704095 0 0
0.039999999 0.014307239 0.021195069 0.47704095 0 0
0.039999999 0.015452736 0.021196958 0.47704095 0 0
0.039999999 0.016598446 0.021198994 0.47704095 0 0
0.039999999 0.017744383 0.021201173 0.47704095 0 0
0.039999999 0.018890565 0.021203499 0.47704095 0 0
0.039999999 0.020037005 0.021205973 0.47704095 0 0
0.039999999 0.02118372 0.02120859 0.47704095 0 0
0.039999999 0.022330727 0.021211356 0.47704095 0 0
0.039999999 0.02347804 0.021214265 0.47704095 0 0
0.039999999 0.024625678 0.021217322 0.47704095 0 0
0.039999999 0.025773652 0.021220526 0.47704095 0 0
0.039999999 0.026921982 0.021223875 0.47704095 0 0
0.039999999 0.028070683 0.021227371 0.47704095 0 0
0.039999999 0.029219769 0.021231014 0.47704095 0 0
0.039999999 0.030369258 0.021234803 0.47704095 0 0
0.039999999 0.031519163 0.021238741 0.47704095 0 0
0.039999999 0.032669507 0.021242823 0.47704095 0 0
0.039999999 0.033820298 0.021247054 0.47704095 0 0
0.039999999 0.034971558 0.021251433 0.47704095 0 0
0.039999999 0.036123298 0.021255959 0.47704095 0 0
0.039999999 0.037275534 0.021260632 0.47704095 0 0
0.039999999 0.038428288 0.021265453 0.47704095 0 0
0.039999999 0.039581574 0.021270422 0.47704095 0 0
0.039999999 0.040735405 0.021275539 0.47704095 0 0
0.039999999 0.041889802 0.021280805 0.47704095 0 0
0.039999999 0.043044776 0.021286219 0.47704095 0 0
0.039999999 0.044200346 0.021291783 0.47704095 0 0
0.039999999 0.045356527 0.021297494 0.47704095 0 0
0.039999999 0.046513338 0.021303356 0.47704095 0 0
0.039999999 0.047670793 0.021309366 0.47704095 0 0
0.039999999 0.048828911 0.021315526 0.47704095 0 0
0.039999999 0.049987704 0.021321835 0.47704095 0 0
0.039999999 0.051147193 0.021328295 0.47704095 0 0
0.039999999 0.052307393 0.021334905 0.47704095 0 0
0.039999999 0.053468321 0.021341665 0.47704095 0 0
0.039999999 0.054629989 0.021348577 0.47704095 0 0
0.039999999 0.055792421 0.021355638 0.47704095 0 0
0.039999999 0.056955628 0.02136285 0.47704095 0 0
0.039999999 0.058119632 0.021370215 0.47704095 0 0
0.039999999 0.059284445 0.021377731 0.47704095 0 0
0.039999999 0.060450085 0.0213854 0.47704095 0 0
0.039999999 0.06161657 0.021393219 0.47704095 0 0
0.039999999 0.062783919 0.021401191 0.47704095 0 0
0.039999999 0.063952141 0.021409316 0.47704095 0 0
0.039999999 0.065121263 0.021417595 0.47704095 0 0
0.039999999 0.066291295 0.021426026 0.47704095 0 0
0.039999999 0.067462258 0.021434613 0.47704095 0 0
0.039999999 0.068634167 0.02144335 0.47704095 0 0
0.039999999 0.069807045 0.021452244 0.47704095 0 0
0.039999999 0.070980899 0.021461291 0.47704095 0 0
0.039999999 0.072155751 0.021470495 0.47704095 0 0
0.039999999 0.073331617 0.021479852 0.47704095 0 0
0.039999999 0.074508525 0.021489367 0.47704095 0 0
0.039999999 0.075686477 0.021499036 0.47704095 0 0
0.039999999 0.076865502 0.021508861 0.47704095 0 0
0.039999999 0.078045607 0.021518843 0.47704095 0 0
0.039999999 0.079226822 0.021528982 0.47704095 0 0
0.039999999 0.00057208556 0.020037021 0.47704095 0 0
0.039999999 0.0017162645 0.020037159 0.47704095 0 0
0.039999999 0.0028604672 0.020037433 0.47704095 0 0
0.039999999 0.004004709 0.020037847 0.47704095 0 0
0.039999999 0.0051490054 0.020038396 0.47704095 0 0
0.039999999 0.0062933727 0.020039082 0.47704095 0 0
0.039999999 0.0074378261 0.020039907 0.47704095 0 0
0.039999999 0.0085823815 0.020040868 0.47704095 0 0
0.039999999 0.0097270552 0.020041967 0.47704095 0 0
0.039999999 0.010871861 0.020043204 0.47704095 0 0
0.039999999 0.012016817 0.020044578 0.47704095 0 0
0.039999999 0.013161938 0.020046089 0.47704095 0 0
0.039999999 0.014307239 0.020047739 0.47704095 0 0
0.039999999 0.015452736 0.020049525 0.47704095 0 0
0.039999999 0.016598446 0.020051451 0.47704095 0 0
0.039999999 0.017744383 0.020053513 0.47704095 0 0
0.039999999 0.018890565 0.020055713 0.47704095 0 0
0.039999999 0.020037005 0.020058053 0.47704095 0 0
0.039999999 0.02118372 0.020060528 0.47704095 0 0
0.039999999 0.022330727 0.020063143 0.47704095 0 0
0.039999999 0.02347804 0.020065896 0.47704095 0 0
0.039999999 0.024625678 0.020068787 0.47704095 0 0
0.039999999 0.025773652 0.020071818 0.47704095 0 0
0.039999999 0.026921982 0.020074986 0.47704095 0 0
0.039999999 0.028070683 0.020078292 0.47704095 0 0
0.039999999 0.029219769 0.020081738 0.47704095 0 0
0.039999999 0.030369258 0.020085322 0.47704095 0 0
0.039999999 0.031519163 0.020089045 0.47704095 0 0
0.039999999 0.032669507 0.020092908 0.47704095 0 0
0.039999999 0.033820298 0.020096909 0.47704095 0 0
0.039999999 0.034971558 0.020101052 0.47704095 0 0
0.039999999 0.036123298 0.020105332 0.47704095 0 0
0.039999999 0.037275534 0.020109752 0.47704095 0 0
0.039999999 0.038428288 0.020114312 0.47704095 0 0
0.039999999 0.039581574 0.020119013 0.47704095 0 0
0.039999999 0.040735405 0.020123854 0.47704095 0 0
0.039999999 0.041889802 0.020128835 0.47704095 0 0
0.039999999 0.043044776 0.020133955 0.47704095 0 0
0.039999999 0.044200346 0.020139217 0.47704095 0 0
0.039999999 0.045356527 0.020144621 0.47704095 0 0
0.039999999 0.046513338 0.020150164 0.47704095 0 0
0.039999999 0.047670793 0.020155849 0.47704095 0 0
0.039999999 0.048828911 0.020161675 0.47704095 0 0
0.039999999 0.049987704 0.020167643 0.47704095 0 0
0.039999999 0.051147193 0.020173753 0.47704095 0 0
0.039999999 0.052307393 0.020180006 0.47704095 0 0
0.039999999 0.053468321 0.0201864 0.47704095 0 0
0.039999999 0.054629989 0.020192936 0.47704095 0 0
0.039999999 0.055792421 0.020199616 0.47704095 0 0
0.039999999 0.056955628 0.020206438 0.47704095 0 0
0.039999999 0.058119632 0.020213405 0.47704095 0 0
0.039999999 0.059284445 0.020220513 0.47704095 0 0
0.039999999 0.060450085 0.020227766 0.47704095 0 0
0.039999999 0.06161657 0.020235162 0.47704095 0 0
0.039999999 0.062783919 0.020242704 0.47704095 0 0
0.039999999 0.063952141 0.020250389 0.47704095 0 0
0.039999999 0.065121263 0.02025822 0.47704095 0 0
0.039999999 0.066291295 0.020266194 0.47704095 0 0
0.039999999 0.067462258 0.020274315 0.47704095 0 0
0.039999999 0.068634167 0.020282581 0.47704095 0 0
0.039999999 0.069807045 0.020290993 0.47704095 0 0
0.039999999 0.070980899 0.02029955 0.47704095 0 0
0.039999999 0.072155751 0.020308256 0.47704095 0 0
0.039999999 0.073331617 0.020317107 0.47704095 0 0
0.039999999 0.074508525 0.020326106 0.47704095 0 0
0.039999999 0.075686477 0.020335251 0.47704095 0 0
0.039999999 0.076865502 0.020344544 0.47704095 0 0
0.039999999 0.078045607 0.020353986 0.47704095 0 0
0.039999999 0.079226822 0.020363577 0.47704095 0 0
0.039999999 0.00057208556 0.01889058 0.47704095 0 0
0.039999999 0.0017162645 0.018890711 0.47704095 0 0
0.039999999 0.0028604672 0.018890969 0.47704095 0 0
0.039999999 0.004004709 0.018891357 0.47704095 0 0
0.039999999 0.0051490054 0.018891875 0.47704095 0 0
0.039999999 0.0062933727 0.018892523 0.47704095 0 0
0.039999999 0.0074378261 0.0188933 0.47704095 0 0
0.039999999 0.0085823815 0.018894207 0.47704095 0 0
0.039999999 0.0097270552 0.018895242 0.47704095 0 0
0.039999999 0.010871861 0.018896408 0.47704095 0 0
0.039999999 0.012016817 0.018897705 0.47704095 0 0
0.039999999 0.013161938 0.01889913 0.47704095 0 0
0.039999999 0.014307239 0.018900683 0.47704095 0 0
0.039999999 0.015452736 0.018902369 0.47704095 0 0
0.039999999 0.016598446 0.018904183 0.47704095 0 0
0.039999999 0.017744383 0.018906128 0.47704095 0 0
0.039999999 0.018890565 0.018908203 0.47704095 0 0
0.039999999 0.020037005 0.018910408 0.47704095 0 0
0.039999999 0.02118372 0.018912742 0.47704095 0 0
0.039999999 0.022330727 0.018915208 0.47704095 0 0
0.039999999 0.02347804 0.018917803 0.47704095 0 0
0.039999999 0.024625678 0.018920528 0.47704095 0 0
0.039999999 0.025773652 0.018923385 0.47704095 0 0
0.039999999 0.026921982 0.018926371 0.47704095 0 0
0.039999999 0.028070683 0.018929489 0.47704095 0 0
0.039999999 0.029219769 0.018932737 0.47704095 0 0
0.039999999 0.030369258 0.018936118 0.47704095 0 0
0.039999999 0.031519163 0.018939627 0.47704095 0 0
0.039999999 0.032669507 0.018943269 0.47704095 0 0
0.039999999 0.033820298 0.018947043 0.47704095 0 0
0.039999999 0.034971558 0.018950947 0.47704095 0 0
0.039999999 0.036123298 0.018954983 0.47704095 0 0
0.039999999 0.037275534 0.01895915 0.47704095 0 0
0.039999999 0.038428288 0.018963449 0.47704095 0 0
0.039999999 0.039581574 0.01896788 0.47704095 0 0
0.039999999 0.040735405 0.018972443 0.47704095 0 0
0.039999999 0.041889802 0.018977139 0.47704095 0 0
0.039999999 0.043044776 0.018981967 0.47704095 0 0
0.039999999 0.044200346 0.018986929 0.47704095 0 0
0.039999999 0.045356527 0.018992022 0.47704095 0 0
0.039999999 0.046513338 0.018997248 0.47704095 0 0
0.039999999 0.047670793 0.019002609 0.47704095 0 0
0.039999999 0.048828911 0.019008102 0.47704095 0 0
0.039999999 0.049987704 0.019013729 0.47704095 0 0
0.039999999 0.051147193 0.019019488 0.47704095 0 0
0.039999999 0.052307393 0.019025384 0.47704095 0 0
0.039999999 0.053468321 0.019031411 0.47704095 0 0
0.039999999 0.054629989 0.019037575 0.47704095 0 0
0.039999999 0.055792421 0.019043872 0.47704095 0 0
0.039999999 0.056955628 0.019050304 0.47704095 0 0
0.039999999 0.058119632 0.019056872 0.47704095 0 0
0.039999999 0.059284445 0.019063573 0.47704095 0 0
0.039999999 0.060450085 0.019070411 0.47704095 0 0
0.039999999 0.06161657 0.019077385 0.47704095 0 0
0.039999999 0.062783919 0.019084495 0.47704095 0 0
0.039999999 0.063952141 0.01909174 0.47704095 0 0
0.039999999 0.065121263 0.019099122 0.47704095 0 0
0.039999999 0.066291295 0.019106641 0.47704095 0 0
0.039999999 0.067462258 0.019114297 0.47704095 0 0
0.039999999 0.068634167 0.01912209 0.47704095 0 0
0.039999999 0.069807045 0.019130019 0.47704095 0 0
0.039999999 0.070980899 0.019138088 0.47704095 0 0
0.039999999 0.072155751 0.019146295 0.47704095 0 0
0.039999999 0.073331617 0.01915464 0.47704095 0 0
0.039999999 0.074508525 0.019163124 0.47704095 0 0
0.039999999 0.075686477 0.019171746 0.47704095 0 0
0.039999999 0.076865502 0.019180508 0.47704095 0 0
0.039999999 0.078045607 0.01918941 0.47704095 0 0
0.039999999 0.079226822 0.019198451 0.47704095 0 0
0.039999999 0.00057208556 0.017744398 0.47704095 0 0
0.039999999 0.0017162645 0.017744521 0.47704095 0 0
0.039999999 0.0028604672 0.017744763 0.47704095 0 0
0.039999999 0.004004709 0.017745128 0.47704095 0 0
0.039999999 0.0051490054 0.017745614 0.47704095 0 0
0.039999999 0.0062933727 0.017746223 0.47704095 0 0
0.039999999 0.0074378261 0.017746953 0.47704095 0 0
0.039999999 0.0085823815 0.017747805 0.47704095 0 0
0.039999999 0.0097270552 0.017748777 0.47704095 0 0
0.039999999 0.010871861 0.017749872 0.47704095 0 0
0.039999999 0.012016817 0.01775109 0.47704095 0 0
0.039999999 0.013161938 0.017752428 0.47704095 0 0
0.039999999 0.014307239 0.01775389 0.47704095 0 0
0.039999999 0.015452736 0.017755471 0.47704095 0 0
0.039999999 0.016598446 0.017757175 0.47704095 0 0
0.039999999 0.017744383 0.017759003 0.47704095 0 0
0.039999999 0.018890565 0.017760951 0.47704095 0 0
0.039999999 0.020037005 0.017763022 0.47704095 0 0
0.039999999 0.02118372 0.017765215 0.47704095 0 0
0.039999999 0.022330727 0.017767532 0.47704095 0 0
0.039999999 0.02347804 0.017769968 0.47704095 0 0
0.039999999 0.024625678 0.017772529 0.47704095 0 0
0.039999999 0.025773652 0.017775213 0.47704095 0 0
0.039999999 0.026921982 0.017778018 0.47704095 0 0
0.039999999 0.028070683 0.017780947 0.47704095 0 0
0.039999999 0.029219769 0.017783998 0.47704095 0 0
0.039999999 0.030369258 0.017787172 0.47704095 0 0
0.039999999 0.031519163 0.01779047 0.47704095 0 0
0.039999999 0.032669507 0.01779389 0.47704095 0 0
0.039999999 0.033820298 0.017797435 0.47704095 0 0
0.039999999 0.034971558 0.017801102 0.47704095 0 0
0.039999999 0.036123298 0.017804893 0.47704095 0 0
0.039999999 0.037275534 0.017808808 0.47704095 0 0
0.039999999 0.038428288 0.017812846 0.47704095 0 0
0.039999999 0.039581574 0.017817007 0.47704095 0 0
0.039999999 0.040735405 0.017821295 0.47704095 0 0
0.039999999 0.041889802 0.017825706 0.47704095 0 0
0.039999999 0.043044776 0.017830241 0.47704095 0 0
0.039999999 0.044200346 0.0178349 0.47704095 0 0
0.039999999 0.045356527 0.017839685 0.47704095 0 0
0.039999999 0.046513338 0.017844595 0.47704095 0 0
0.039999999 0.047670793 0.01784963 0.47704095 0 0
0.039999999 0.048828911 0.017854789 0.47704095 0 0
0.039999999 0.049987704 0.017860074 0.47704095 0 0
0.039999999 0.051147193 0.017865485 0.47704095 0 0
0.039999999 0.052307393 0.017871022 0.47704095 0 0
0.039999999 0.053468321 0.017876685 0.47704095 0 0
0.039999999 0.054629989 0.017882474 0.47704095 0 0
0.039999999 0.055792421 0.017888388 0.47704095 0 0
0.039999999 0.056955628 0.01789443 0.47704095 0 0
0.039999999 0.058119632 0.017900599 0.47704095 0 0
0.039999999 0.059284445 0.017906895 0.47704095 0 0
0.039999999 0.060450085 0.017913317 0.47704095 0 0
0.039999999 0.06161657 0.017919868 0.47704095 0 0
0.039999999 0.062783919 0.017926546 0.47704095 0 0
0.039999999 0.063952141 0.017933352 0.47704095 0 0
0.039999999 0.065121263 0.017940287 0.47704095 0 0
0.039999999 0.066291295 0.01794735 0.47704095 0 0
0.039999999 0.067462258 0.017954541 0.47704095 0 0
0.039999999 0.068634167 0.017961862 0.47704095 0 0
0.039999999 0.069807045 0.01796931 0.47704095 0 0
0.039999999 0.070980899 0.017976889 0.47704095 0 0
0.039999999 0.072155751 0.017984597 0.47704095 0 0
0.039999999 0.073331617 0.017992437 0.47704095 0 0
0.039999999 0.074508525 0.018000405 0.47704095 0 0
0.039999999 0.075686477 0.018008504 0.47704095 0 0
0.039999999 0.076865502 0.018016735 0.47704095 0 0
0.039999999 0.078045607 0.018025097 0.47704095 0 0
0.039999999 0.079226822 0.018033588 0.47704095 0 0
0.039999999 0.00057208556 0.016598459 0.47704095 0 0
0.039999999 0.0017162645 0.016598573 0.47704095 0 0
0.039999999 0.0028604672 0.016598802 0.47704095 0 0
0.039999999 0.004004709 0.016599143 0.47704095 0 0
0.039999999 0.0051490054 0.016599597 0.47704095 0 0
0.039999999 0.0062933727 0.016600167 0.47704095 0 0
0.039999999 0.0074378261 0.016600849 0.47704095 0 0
0.039999999 0.0085823815 0.016601646 0.47704095 0 0
0.039999999 0.0097270552 0.016602557 0.47704095 0 0
0.039999999 0.010871861 0.016603582 0.47704095 0 0
0.039999999 0.012016817 0.01660472 0.47704095 0 0
0.039999999 0.013161938 0.016605971 0.47704095 0 0
0.039999999 0.014307239 0.016607339 0.47704095 0 0
0.039999999 0.015452736 0.016608818 0.47704095 0 0
0.039999999 0.016598446 0.016610412 0.47704095 0 0
0.039999999 0.017744383 0.016612122 0.47704095 0 0
0.039999999 0.018890565 0.016613944 0.47704095 0 0
0.039999999 0.020037005 0.016615881 0.47704095 0 0
0.039999999 0.02118372 0.016617933 0.47704095 0 0
0.039999999 0.022330727 0.0166201 0.47704095 0 0
0.039999999 0.02347804 0.016622379 0.47704095 0 0
0.039999999 0.024625678 0.016624775 0.47704095 0 0
0.039999999 0.025773652 0.016627284 0.47704095 0 0
0.039999999 0.026921982 0.016629908 0.47704095 0 0
0.039999999 0.028070683 0.016632648 0.47704095 0 0
0.039999999 0.029219769 0.016635502 0.47704095 0 0
0.039999999 0.030369258 0.016638471 0.47704095 0 0
0.039999999 0.031519163 0.016641555 0.47704095 0 0
0.039999999 0.032669507 0.016644755 0.47704095 0 0
0.039999999 0.033820298 0.016648071 0.47704095 0 0
0.039999999 0.034971558 0.016651502 0.47704095 0 0
0.039999999 0.036123298 0.016655046 0.47704095 0 0
0.039999999 0.037275534 0.016658708 0.47704095 0 0
0.039999999 0.038428288 0.016662488 0.47704095 0 0
0.039999999 0.039581574 0.016666381 0.47704095 0 0
0.039999999 0.040735405 0.016670391 0.47704095 0 0
0.039999999 0.041889802 0.016674517 0.47704095 0 0
0.039999999 0.043044776 0.016678758 0.47704095 0 0
0.039999999 0.044200346 0.016683118 0.47704095 0 0
0.039999999 0.045356527 0.016687592 0.47704095 0 0
0.039999999 0.046513338 0.016692186 0.47704095 0 0
0.039999999 0.047670793 0.016696895 0.47704095 0 0
0.039999999 0.048828911 0.016701723 0.47704095 0 0
0.039999999 0.049987704 0.016706666 0.47704095 0 0
0.039999999 0.051147193 0.016711727 0.47704095 0 0
0.039999999 0.052307393 0.016716907 0.47704095 0 0
0.039999999 0.053468321 0.016722202 0.47704095 0 0
0.039999999 0.054629989 0.016727619 0.47704095 0 0
0.039999999 0.055792421 0.016733151 0.47704095 0 0
0.039999999 0.056955628 0.016738802 0.47704095 0 0
0.039999999 0.058119632 0.016744573 0.47704095 0 0
0.039999999 0.059284445 0.016750462 0.47704095 0 0
0.039999999 0.060450085 0.016756471 0.47704095 0 0
0.039999999 0.06161657 0.016762597 0.47704095 0 0
0.039999999 0.062783919 0.016768845 0.47704095 0 0
0.039999999 0.063952141 0.016775211 0.47704095 0 0
0.039999999 0.065121263 0.016781697 0.47704095 0 0
0.039999999 0.066291295 0.016788304 0.47704095 0 0
0.039999999 0.067462258 0.016795032 0.47704095 0 0
0.039999999 0.068634167 0.016801879 0.47704095 0 0
0.039999999 0.069807045 0.016808847 0.47704095 0 0
0.039999999 0.070980899 0.016815936 0.47704095 0 0
0.039999999 0.072155751 0.016823146 0.47704095 0 0
0.039999999 0.073331617 0.01683048 0.47704095 0 0
0.039999999 0.074508525 0.016837934 0.47704095 0 0
0.039999999 0.075686477 0.016845509 0.47704095 0 0
0.039999999 0.076865502 0.016853208 0.47704095 0 0
0.039999999 0.078045607 0.016861031 0.47704095 0 0
0.039999999 0.079226822 0.016868975 0.47704095 0 0
0.039999999 0.00057208556 0.015452749 0.47704095 0 0
0.039999999 0.0017162645 0.015452855 0.47704095 0 0
0.039999999 0.0028604672 0.015453068 0.47704095 0 0
0.039999999 0.004004709 0.015453385 0.47704095 0 0
0.039999999 0.0051490054 0.015453809 0.47704095 0 0
0.039999999 0.0062933727 0.015454338 0.47704095 0 0
0.039999999 0.0074378261 0.015454974 0.47704095 0 0
0.039999999 0.0085823815 0.015455715 0.47704095 0 0
0.039999999 0.0097270552 0.015456563 0.47704095 0 0
0.039999999 0.010871861 0.015457517 0.47704095 0 0
0.039999999 0.012016817 0.015458576 0.47704095 0 0
0.039999999 0.013161938 0.015459742 0.47704095 0 0
0.039999999 0.014307239 0.015461015 0.47704095 0 0
0.039999999 0.015452736 0.015462393 0.47704095 0 0
0.039999999 0.016598446 0.015463877 0.47704095 0 0
0.039999999 0.017744383 0.015465467 0.47704095 0 0
0.039999999 0.018890565 0.015467165 0.47704095 0 0
0.039999999 0.020037005 0.015468968 0.47704095 0 0
0.039999999 0.02118372 0.015470878 0.47704095 0 0
0.039999999 0.022330727 0.015472895 0.47704095 0 0
0.039999999 0.02347804 0.015475018 0.47704095 0 0
0.039999999 0.024625678 0.015477248 0.47704095 0 0
0.039999999 0.025773652 0.015479584 0.47704095 0 0
0.039999999 0.026921982 0.015482027 0.47704095 0 0
0.039999999 0.028070683 0.015484578 0.47704095 0 0
0.039999999 0.029219769 0.015487235 0.47704095 0 0
0.039999999 0.030369258 0.015489999 0.47704095 0 0
0.039999999 0.031519163 0.01549287 0.47704095 0 0
0.039999999 0.032669507 0.01549585 0.47704095 0 0
0.039999999 0.033820298 0.015498936 0.47704095 0 0
0.039999999 0.034971558 0.01550213 0.47704095 0 0
0.039999999 0.036123298 0.015505431 0.47704095 0 0
0.039999999 0.037275534 0.01550884 0.47704095 0 0
0.039999999 0.038428288 0.015512357 0.47704095 0 0
0.039999999 0.039581574 0.015515982 0.47704095 0 0
0.039999999 0.040735405 0.015519715 0.47704095 0 0
0.039999999 0.041889802 0.015523556 0.47704095 0 0
0.039999999 0.043044776 0.015527505 0.47704095 0 0
0.039999999 0.044200346 0.015531563 0.47704095 0 0
0.039999999 0.045356527 0.01553573 0.47704095 0 0
0.039999999 0.046513338 0.015540006 0.47704095 0 0
0.039999999 0.047670793 0.01554439 0.47704095 0 0
0.039999999 0.048828911 0.015548883 0.47704095 0 0
0.039999999 0.049987704 0.015553487 0.47704095 0 0
0.039999999 0.051147193 0.015558198 0.47704095 0 0
0.039999999 0.052307393 0.01556302 0.47704095 0 0
0.039999999 0.053468321 0.015567951 0.47704095 0 0
0.039999999 0.054629989 0.015572992 0.47704095 0 0
0.039999999 0.055792421 0.015578143 0.47704095 0 0
0.039999999 0.056955628 0.015583405 0.47704095 0 0
0.039999999 0.058119632 0.015588777 0.47704095 0 0
0.039999999 0.059284445 0.01559426 0.47704095 0 0
0.039999999 0.060450085 0.015599853 0.47704095 0 0
0.039999999 0.06161657 0.015605558 0.47704095 0 0
0.039999999 0.062783919 0.015611373 0.47704095 0 0
0.039999999 0.063952141 0.015617301 0.47704095 0 0
0.039999999 0.065121263 0.015623339 0.47704095 0 0
0.039999999 0.066291295 0.015629489 0.47704095 0 0
0.039999999 0.067462258 0.015635753 0.47704095 0 0
0.039999999 0.068634167 0.015642127 0.47704095 0 0
0.039999999 0.069807045 0.015648615 0.47704095 0 0
0.039999999 0.070980899 0.015655214 0.47704095 0 0
0.039999999 0.072155751 0.015661927 0.47704095 0 0
0.039999999 0.073331617 0.015668754 0.47704095 0 0
0.039999999 0.074508525 0.015675694 0.47704095 0 0
0.039999999 0.075686477 0.015682748 0.47704095 0 0
0.039999999 0.076865502 0.015689913 0.47704095 0 0
0.039999999 0.078045607 0.015697196 0.47704095 0 0
0.039999999 0.079226822 0.015704591 0.47704095 0 0
0.039999999 0.00057208556 0.014307251 0.47704095 0 0
0.039999999 0.0017162645 0.014307349 0.47704095 0 0
0.039999999 0.0028604672 0.014307545 0.47704095 0 0
0.039999999 0.004004709 0.01430784 0.47704095 0 0
0.039999999 0.0051490054 0.014308232 0.47704095 0 0
0.039999999 0.0062933727 0.014308722 0.47704095 0 0
0.039999999 0.0074378261 0.01430931 0.47704095 0 0
0.039999999 0.0085823815 0.014309998 0.47704095 0 0
0.039999999 0.0097270552 0.014310782 0.47704095 0 0
0.039999999 0.010871861 0.014311665 0.47704095 0 0
0.039999999 0.012016817 0.014312646 0.47704095 0 0
0.039999999 0.013161938 0.014313726 0.47704095 0 0
0.039999999 0.014307239 0.014314903 0.47704095 0 0
0.039999999 0.015452736 0.014316179 0.47704095 0 0
0.039999999 0.016598446 0.014317553 0.47704095 0 0
0.039999999 0.017744383 0.014319027 0.47704095 0 0
0.039999999 0.018890565 0.014320598 0.47704095 0 0
0.039999999 0.020037005 0.014322268 0.47704095 0 0
0.039999999 0.02118372 0.014324035 0.47704095 0 0
0.039999999 0.022330727 0.014325903 0.47704095 0 0
0.039999999 0.02347804 0.014327869 0.47704095 0 0
0.039999999 0.024625678 0.014329933 0.47704095 0 0
0.039999999 0.025773652 0.014332096 0.47704095 0 0
0.039999999 0.026921982 0.014334358 0.47704095 0 0
0.039999999 0.028070683 0.01433672 0.47704095 0 0
0.039999999 0.029219769 0.01433918 0.47704095 0 0
0.039999999 0.030369258 0.014341739 0.47704095 0 0
0.039999999 0.031519163 0.014344398 0.47704095 0 0
0.039999999 0.032669507 0.014347157 0.47704095 0 0
0.039999999 0.033820298 0.014350014 0.47704095 0 0
0.039999999 0.034971558 0.014352971 0.47704095 0 0
0.039999999 0.036123298 0.014356027 0.47704095 0 0
0.039999999 0.037275534 0.014359184 0.47704095 0 0
0.039999999 0.038428288 0.01436244 0.47704095 0 0
0.039999999 0.039581574 0.014365796 0.47704095 0 0
0.039999999 0.040735405 0.014369252 0.47704095 0 0
0.039999999 0.041889802 0.014372809 0.47704095 0 0
0.039999999 0.043044776 0.014376465 0.47704095 0 0
0.039999999 0.044200346 0.014380223 0.47704095 0 0
0.039999999 0.045356527 0.014384081 0.47704095 0 0
0.039999999 0.046513338 0.014388039 0.47704095 0 0
0.039999999 0.047670793 0.014392098 0.47704095 0 0
0.039999999 0.048828911 0.014396259 0.47704095 0 0
0.039999999 0.049987704 0.01440052 0.47704095 0 0
0.039999999 0.051147193 0.014404883 0.47704095 0 0
0.039999999 0.052307393 0.014409347 0.47704095 0 0
0.039999999 0.053468321 0.014413913 0.47704095 0 0
0.039999999 0.054629989 0.014418581 0.47704095 0 0
0.039999999 0.055792421 0.01442335 0.47704095 0 0
0.039999999 0.056955628 0.014428222 0.47704095 0 0
0.039999999 0.058119632 0.014433195 0.47704095 0 0
0.039999999 0.059284445 0.014438272 0.47704095 0 0
0.039999999 0.060450085 0.01444345 0.47704095 0 0
0.039999999 0.06161657 0.014448732 0.47704095 0 0
0.039999999 0.062783919 0.014454116 0.47704095 0 0
0.039999999 0.063952141 0.014459603 0.47704095 0 0
0.039999999 0.065121263 0.014465195 0.47704095 0 0
0.039999999 0.066291295 0.014470889 0.47704095 0 0
0.039999999 0.067462258 0.014476688 0.47704095 0 0
0.039999999 0.068634167 0.01448259 0.47704095 0 0
0.039999999 0.069807045 0.014488596 0.47704095 0 0
0.039999999 0.070980899 0.014494708 0.47704095 0 0
0.039999999 0.072155751 0.014500923 0.47704095 0 0
0.039999999 0.073331617 0.014507243 0.47704095 0 0
0.039999999 0.074508525 0.014513669 0.47704095 0 0
0.039999999 0.075686477 0.014520199 0.47704095 0 0
0.039999999 0.076865502 0.014526835 0.47704095 0 0
0.039999999 0.078045607 0.014533577 0.47704095 0 0
0.039999999 0.079226822 0.014540425 0.47704095 0 0
0.039999999 0.00057208556 0.013161949 0.47704095 0 0
0.039999999 0.0017162645 0.013162039 0.47704095 0 0
0.039999999 0.0028604672 0.01316222 0.47704095 0 0
0.039999999 0.004004709 0.01316249 0.47704095 0 0
0.039999999 0.0051490054 0.013162851 0.47704095 0 0
0.039999999 0.0062933727 0.013163302 0.47704095 0 0
0.039999999 0.0074378261 0.013163843 0.47704095 0 0
0.039999999 0.0085823815 0.013164476 0.47704095 0 0
0.039999999 0.0097270552 0.013165197 0.47704095 0 0
0.039999999 0.010871861 0.013166009 0.47704095 0 0
0.039999999 0.012016817 0.013166912 0.47704095 0 0
0.039999999 0.013161938 0.013167905 0.47704095 0 0
0.039999999 0.014307239 0.013168989 0.47704095 0 0
0.039999999 0.015452736 0.013170162 0.47704095 0 0
0.039999999 0.016598446 0.013171427 0.47704095 0 0
0.039999999 0.017744383 0.013172782 0.47704095 0 0
0.039999999 0.018890565 0.013174227 0.47704095 0 0
0.039999999 0.020037005 0.013175763 0.47704095 0 0
0.039999999 0.02118372 0.01317739 0.47704095 0 0
0.039999999 0.022330727 0.013179108 0.47704095 0 0
0.039999999 0.02347804 0.013180916 0.47704095 0 0
0.039999999 0.024625678 0.013182815 0.47704095 0 0
0.039999999 0.025773652 0.013184805 0.47704095 0 0
0.039999999 0.026921982 0.013186886 0.47704095 0 0
0.039999999 0.028070683 0.013189059 0.47704095 0 0
0.039999999 0.029219769 0.013191322 0.47704095 0 0
0.039999999 0.030369258 0.013193676 0.47704095 0 0
0.039999999 0.031519163 0.013196122 0.47704095 0 0
0.039999999 0.032669507 0.01319866 0.47704095 0 0
0.039999999 0.033820298 0.013201288 0.47704095 0 0
0.039999999 0.034971558 0.013204008 0.47704095 0 0
0.039999999 0.036123298 0.013206821 0.47704095 0 0
0.039999999 0.037275534 0.013209724 0.47704095 0 0
0.039999999 0.038428288 0.01321272 0.47704095 0 0
0.039999999 0.039581574 0.013215807 0.47704095 0 0
0.039999999 0.040735405 0.013218987 0.47704095 0 0
0.039999999 0.041889802 0.013222259 0.47704095 0 0
0.039999999 0.043044776 0.013225622 0.47704095 0 0
0.039999999 0.044200346 0.01322908 0.47704095 0 0
0.039999999 0.045356527 0.013232628 0.47704095 0 0
0.039999999 0.046513338 0.013236269 0.47704095 0 0
0.039999999 0.047670793 0.013240004 0.47704095 0 0
0.039999999 0.048828911 0.013243832 0.47704095 0 0
0.039999999 0.049987704 0.013247752 0.47704095 0 0
0.039999999 0.051147193 0.013251766 0.47704095 0 0
0.039999999 0.052307393 0.013255872 0.47704095 0 0
0.039999999 0.053468321 0.013260072 0.47704095 0 0
0.039999999 0.054629989 0.013264366 0.47704095 0 0
0.039999999 0.055792421 0.013268754 0.47704095 0 0
0.039999999 0.056955628 0.013273235 0.47704095 0 0
0.039999999 0.058119632 0.013277811 0.47704095 0 0
0.039999999 0.059284445 0.013282481 0.47704095 0 0
0.039999999 0.060450085 0.013287245 0.47704095 0 0
0.039999999 0.06161657 0.013292104 0.47704095 0 0
0.039999999 0.062783919 0.013297058 0.47704095 0 0
0.039999999 0.063952141 0.013302105 0.47704095 0 0
0.039999999 0.065121263 0.013307249 0.47704095 0 0
0.039999999 0.066291295 0.013312488 0.47704095 0 0
0.039999999 0.067462258 0.013317822 0.47704095 0 0
0.039999999 0.068634167 0.013323252 0.47704095 0 0
0.039999999 0.069807045 0.013328778 0.47704095 0 0
0.039999999 0.070980899 0.013334399 0.47704095 0 0
0.039999999 0.072155751 0.013340117 0.47704095 0 0
0.039999999 0.073331617 0.013345932 0.47704095 0 0
0.039999999 0.074508525 0.013351843 0.47704095 0 0
0.039999999 0.075686477 0.01335785 0.47704095 0 0
0.039999999 0.076865502 0.013363955 0.47704095 0 0
0.039999999 0.078045607 0.013370157 0.47704095 0 0
0.039999999 0.079226822 0.013376457 0.47704095 0 0
0.039999999 0.00057208556 0.012016827 0.47704095 0 0
0.039999999 0.0017162645 0.01201691 0.47704095 0 0
0.039999999 0.0028604672 0.012017075 0.47704095 0 0
0.039999999 0.004004709 0.012017322 0.47704095 0 0
0.039999999 0.0051490054 0.012017651 0.47704095 0 0
0.039999999 0.0062933727 0.012018063 0.47704095 0 0
0.039999999 0.0074378261 0.012018558 0.47704095 0 0
0.039999999 0.0085823815 0.012019134 0.47704095 0 0
0.039999999 0.0097270552 0.012019794 0.47704095 0 0
0.039999999 0.010871861 0.012020535 0.47704095 0 0
0.039999999 0.012016817 0.012021359 0.47704095 0 0
0.039999999 0.013161938 0.012022265 0.47704095 0 0
0.039999999 0.014307239 0.012023254 0.47704095 0 0
0.039999999 0.015452736 0.012024326 0.47704095 0 0
0.039999999 0.016598446 0.012025481 0.47704095 0 0
0.039999999 0.017744383 0.012026718 0.47704095 0 0
0.039999999 0.018890565 0.012028038 0.47704095 0 0
0.039999999 0.020037005 0.01202944 0.47704095 0 0
0.039999999 0.02118372 0.012030925 0.47704095 0 0
0.039999999 0.022330727 0.012032493 0.47704095 0 0
0.039999999 0.02347804 0.012034144 0.47704095 0 0
0.039999999 0.024625678 0.012035878 0.47704095 0 0
0.039999999 0.025773652 0.012037695 0.47704095 0 0
0.039999999 0.026921982 0.012039595 0.47704095 0 0
0.039999999 0.028070683 0.012041578 0.47704095 0 0
0.039999999 0.029219769 0.012043645 0.47704095 0 0
0.039999999 0.030369258 0.012045794 0.47704095 0 0
0.039999999 0.031519163 0.012048027 0.47704095 0 0
0.039999999 0.032669507 0.012050345 0.47704095 0 0
0.039999999 0.033820298 0.012052745 0.47704095 0 0
0.039999999 0.034971558 0.012055228 0.47704095 0 0
0.039999999 0.036123298 0.012057795 0.47704095 0 0
0.039999999 0.037275534 0.012060446 0.47704095 0 0
0.039999999 0.038428288 0.012063181 0.47704095 0 0
0.039999999 0.039581574 0.012066 0.47704095 0 0
0.039999999 0.040735405 0.012068903 0.47704095 0 0
0.039999999 0.041889802 0.01207189 0.47704095 0 0
0.039999999 0.043044776 0.012074961 0.47704095 0 0
0.039999999 0.044200346 0.012078117 0.47704095 0 0
0.039999999 0.045356527 0.012081358 0.47704095 0 0
0.039999999 0.046513338 0.012084682 0.47704095 0 0
0.039999999 0.047670793 0.012088092 0.47704095 0 0
0.039999999 0.048828911 0.012091586 0.47704095 0 0
0.039999999 0.049987704 0.012095165 0.47704095 0 0
0.039999999 0.051147193 0.012098829 0.47704095 0 0
0.039999999 0.052307393 0.012102579 0.47704095 0 0
0.039999999 0.053468321 0.012106414 0.47704095 0 0
0.039999999 0.054629989 0.012110334 0.47704095 0 0
0.039999999 0.055792421 0.01211434 0.47704095 0 0
0.039999999 0.056955628 0.012118432 0.47704095 0 0
0.039999999 0.058119632 0.01212261 0.47704095 0 0
0.039999999 0.059284445 0.012126873 0.47704095 0 0
0.039999999 0.060450085 0.012131223 0.47704095 0 0
0.039999999 0.06161657 0.012135658 0.47704095 0 0
0.039999999 0.062783919 0.012140181 0.47704095 0 0
0.039999999 0.063952141 0.01214479 0.47704095 0 0
0.039999999 0.065121263 0.012149487 0.47704095 0 0
0.039999999 0.066291295 0.012154269 0.47704095 0 0
0.039999999 0.067462258 0.012159139 0.47704095 0 0
0.039999999 0.068634167 0.012164096 0.47704095 0 0
0.039999999 0.069807045 0.012169141 0.47704095 0 0
0.039999999 0.070980899 0.012174274 0.47704095 0 0
0.039999999 0.072155751 0.012179495 0.47704095 0 0
0.039999999 0.073331617 0.012184803 0.47704095 0 0
0.039999999 0.074508525 0.012190199 0.47704095 0 0
0.039999999 0.075686477 0.012195685 0.47704095 0 0
0.039999999 0.076865502 0.012201258 0.47704095 0 0
0.039999999 0.078045607 0.01220692 0.47704095 0 0
0.039999999 0.079226822 0.012212672 0.47704095 0 0
0.039999999 0.00057208556 0.01087187 0.47704095 0 0
0.039999999 0.0017162645 0.010871945 0.47704095 0 0
0.039999999 0.0028604672 0.010872094 0.47704095 0 0
0.039999999 0.004004709 0.010872317 0.47704095 0 0
0.039999999 0.0051490054 0.010872616 0.47704095 0 0
0.039999999 0.0062933727 0.010872989 0.47704095 0 0
0.039999999 0.0074378261 0.010873436 0.47704095 0 0
0.039999999 0.0085823815 0.010873958 0.47704095 0 0
0.039999999 0.0097270552 0.010874554 0.47704095 0 0
0.039999999 0.010871861 0.010875225 0.47704095 0 0
0.039999999 0.012016817 0.01087597 0.47704095 0 0
0.039999999 0.013161938 0.010876791 0.47704095 0 0
0.039999999 0.014307239 0.010877686 0.47704095 0 0
0.039999999 0.015452736 0.010878655 0.47704095 0 0
0.039999999 0.016598446 0.010879699 0.47704095 0 0
0.039999999 0.017744383 0.010880819 0.47704095 0 0
0.039999999 0.018890565 0.010882013 0.47704095 0 0
0.039999999 0.020037005 0.010883281 0.47704095 0 0
0.039999999 0.02118372 0.010884625 0.47704095 0 0
0.039999999 0.022330727 0.010886044 0.47704095 0 0
0.039999999 0.02347804 0.010887537 0.47704095 0 0
0.039999999 0.024625678 0.010889106 0.47704095 0 0
0.039999999 0.025773652 0.01089075 0.47704095 0 0
0.039999999 0.026921982 0.010892469 0.47704095 0 0
0.039999999 0.028070683 0.010894263 0.47704095 0 0
0.039999999 0.029219769 0.010896133 0.47704095 0 0
0.039999999 0.030369258 0.010898078 0.47704095 0 0
0.039999999 0.031519163 0.010900098 0.47704095 0 0
0.039999999 0.032669507 0.010902194 0.47704095 0 0
0.039999999 0.033820298 0.010904365 0.47704095 0 0
0.039999999 0.034971558 0.010906613 0.47704095 0 0
0.039999999 0.036123298 0.010908935 0.47704095 0 0
0.039999999 0.037275534 0.010911333 0.47704095 0 0
0.039999999 0.038428288 0.010913808 0.47704095 0 0
0.039999999 0.039581574 0.010916358 0.47704095 0 0
0.039999999 0.040735405 0.010918984 0.47704095 0 0
0.039999999 0.041889802 0.010921687 0.47704095 0 0
0.039999999 0.043044776 0.010924466 0.47704095 0 0
0.039999999 0.044200346 0.01092732 0.47704095 0 0
0.039999999 0.045356527 0.010930252 0.47704095 0 0
0.039999999 0.046513338 0.01093326 0.47704095 0 0
0.039999999 0.047670793 0.010936345 0.47704095 0 0
0.039999999 0.048828911 0.010939506 0.47704095 0 0
0.039999999 0.049987704 0.010942744 0.47704095 0 0
0.039999999 0.051147193 0.01094606 0.47704095 0 0
0.039999999 0.052307393 0.010949452 0.47704095 0 0
0.039999999 0.053468321 0.010952922 0.47704095 0 0
0.039999999 0.054629989 0.010956468 0.47704095 0 0
0.039999999 0.055792421 0.010960093 0.47704095 0 0
0.039999999 0.056955628 0.010963794 0.47704095 0 0
0.039999999 0.058119632 0.010967574 0.47704095 0 0
0.039999999 0.059284445 0.010971431 0.47704095 0 0
0.039999999 0.060450085 0.010975366 0.47704095 0 0
0.039999999 0.06161657 0.01097938 0.47704095 0 0
0.039999999 0.062783919 0.010983472 0.47704095 0 0
0.039999999 0.063952141 0.010987641 0.47704095 0 0
0.039999999 0.065121263 0.01099189 0.47704095 0 0
0.039999999 0.066291295 0.010996217 0.47704095 0 0
0.039999999 0.067462258 0.011000623 0.47704095 0 0
0.039999999 0.068634167 0.011005108 0.47704095 0 0
0.039999999 0.069807045 0.011009673 0.47704095 0 0
0.039999999 0.070980899 0.011014316 0.47704095 0 0
0.039999999 0.072155751 0.011019039 0.47704095 0 0
0.039999999 0.073331617 0.011023842 0.47704095 0 0
0.039999999 0.074508525 0.011028724 0.47704095 0 0
0.039999999 0.075686477 0.011033687 0.47704095 0 0
0.039999999 0.076865502 0.011038729 0.47704095 0 0
0.039999999 0.078045607 0.011043852 0.47704095 0 0
0.039999999 0.079226822 0.011049055 0.47704095 0 0
0.039999999 0.00057208556 0.0097270636 0.47704095 0 0
0.039999999 0.0017162645 0.0097271297 0.47704095 0 0
0.039999999 0.0028604672 0.0097272629 0.47704095 0 0
0.039999999 0.004004709 0.0097274631 0.47704095 0 0
0.039999999 0.0051490054 0.0097277295 0.47704095 0 0
0.039999999 0.0062933727 0.0097280629 0.47704095 0 0
0.039999999 0.0074378261 0.0097284634 0.47704095 0 0
0.039999999 0.0085823815 0.00972893 0.47704095 0 0
0.039999999 0.0097270552 0.0097294636 0.47704095 0 0
0.039999999 0.010871861 0.0097300643 0.47704095 0 0
0.039999999 0.012016817 0.0097307311 0.47704095 0 0
0.039999999 0.013161938 0.009731465 0.47704095 0 0
0.039999999 0.014307239 0.009732266 0.47704095 0 0
0.039999999 0.015452736 0.009733133 0.47704095 0 0
0.039999999 0.016598446 0.0097340671 0.47704095 0 0
0.039999999 0.017744383 0.0097350692 0.47704095 0 0
0.039999999 0.018890565 0.0097361375 0.47704095 0 0
0.039999999 0.020037005 0.0097372727 0.47704095 0 0
0.039999999 0.02118372 0.0097384742 0.47704095 0 0
0.039999999 0.022330727 0.0097397435 0.47704095 0 0
0.039999999 0.02347804 0.00974108 0.47704095 0 0
0.039999999 0.024625678 0.0097424835 0.47704095 0 0
0.039999999 0.025773652 0.009743955 0.47704095 0 0
0.039999999 0.026921982 0.0097454926 0.47704095 0 0
0.039999999 0.028070683 0.0097470982 0.47704095 0 0
0.039999999 0.029219769 0.0097487709 0.47704095 0 0
0.039999999 0.030369258 0.0097505106 0.47704095 0 0
0.039999999 0.031519163 0.0097523183 0.47704095 0 0
0.039999999 0.032669507 0.009754193 0.47704095 0 0
0.039999999 0.033820298 0.0097561358 0.47704095 0 0
0.039999999 0.034971558 0.0097581465 0.47704095 0 0
0.039999999 0.036123298 0.0097602243 0.47704095 0 0
0.039999999 0.037275534 0.00976237 0.47704095 0 0
0.039999999 0.038428288 0.0097645847 0.47704095 0 0
0.039999999 0.039581574 0.0097668665 0.47704095 0 0
0.039999999 0.040735405 0.0097692162 0.47704095 0 0
0.039999999 0.041889802 0.0097716339 0.47704095 0 0
0.039999999 0.043044776 0.0097741196 0.47704095 0 0
0.039999999 0.044200346 0.0097766742 0.47704095 0 0
0.039999999 0.045356527 0.0097792968 0.47704095 0 0
0.039999999 0.046513338 0.0097819883 0.47704095 0 0
0.039999999 0.047670793 0.0097847478 0.47704095 0 0
0.039999999 0.048828911 0.0097875763 0.47704095 0 0
0.039999999 0.049987704 0.0097904736 0.47704095 0 0
0.039999999 0.051147193 0.0097934399 0.47704095 0 0
0.039999999 0.052307393 0.0097964751 0.47704095 0 0
0.039999999 0.053468321 0.0097995792 0.47704095 0 0
0.039999999 0.054629989 0.0098027522 0.47704095 0 0
0.039999999 0.055792421 0.009805995 0.47704095 0 0
0.039999999 0.056955628 0.0098093068 0.47704095 0 0
0.039999999 0.058119632 0.0098126885 0.47704095 0 0
0.039999999 0.059284445 0.0098161399 0.47704095 0 0
0.039999999 0.060450085 0.0098196603 0.47704095 0 0
0.039999999 0.06161657 0.0098232515 0.47704095 0 0
0.039999999 0.062783919 0.0098269125 0.47704095 0 0
0.039999999 0.063952141 0.0098306434 0.47704095 0 0
0.039999999 0.065121263 0.0098344442 0.47704095 0 0
0.039999999 0.066291295 0.0098383157 0.47704095 0 0
0.039999999 0.067462258 0.0098422579 0.47704095 0 0
0.039999999 0.068634167 0.009846271 0.47704095 0 0
0.039999999 0.069807045 0.0098503549 0.47704095 0 0
0.039999999 0.070980899 0.0098545086 0.47704095 0 0
0.039999999 0.072155751 0.0098587349 0.47704095 0 0
0.039999999 0.073331617 0.009863032 0.47704095 0 0
0.039999999 0.074508525 0.0098673999 0.47704095 0 0
0.039999999 0.075686477 0.0098718395 0.47704095 0 0
0.039999999 0.076865502 0.0098763518 0.47704095 0 0
0.039999999 0.078045607 0.0098809348 0.47704095 0 0
0.039999999 0.079226822 0.0098855905 0.47704095 0 0
0.039999999 0.00057208556 0.008582389 0.47704095 0 0
0.039999999 0.0017162645 0.0085824477 0.47704095 0 0
0.039999999 0.0028604672 0.0085825659 0.47704095 0 0
0.039999999 0.004004709 0.008582742 0.47704095 0 0
0.039999999 0.0051490054 0.0085829776 0.47704095 0 0
0.039999999 0.0062933727 0.0085832719 0.47704095 0 0
0.039999999 0.0074378261 0.0085836248 0.47704095 0 0
0.039999999 0.0085823815 0.0085840365 0.47704095 0 0
0.039999999 0.0097270552 0.0085845068 0.47704095 0 0
0.039999999 0.010871861 0.0085850367 0.47704095 0 0
0.039999999 0.012016817 0.0085856253 0.47704095 0 0
0.039999999 0.013161938 0.0085862726 0.47704095 0 0
0.039999999 0.014307239 0.0085869795 0.47704095 0 0
0.039999999 0.015452736 0.008587745 0.47704095 0 0
0.039999999 0.016598446 0.0085885692 0.47704095 0 0
0.039999999 0.017744383 0.0085894521 0.47704095 0 0
0.039999999 0.018890565 0.0085903956 0.47704095 0 0
0.039999999 0.020037005 0.0085913967 0.47704095 0 0
0.039999999 0.02118372 0.0085924575 0.47704095 0 0
0.039999999 0.022330727 0.0085935779 0.47704095 0 0
0.039999999 0.02347804 0.0085947569 0.47704095 0 0
0.039999999 0.024625678 0.0085959947 0.47704095 0 0
0.039999999 0.025773652 0.0085972929 0.47704095 0 0
0.039999999 0.026921982 0.0085986499 0.47704095 0 0
0.039999999 0.028070683 0.0086000664 0.47704095 0 0
0.039999999 0.029219769 0.0086015416 0.47704095 0 0
0.039999999 0.030369258 0.0086030774 0.47704095 0 0
0.039999999 0.031519163 0.0086046718 0.47704095 0 0
0.039999999 0.032669507 0.0086063268 0.47704095 0 0
0.039999999 0.033820298 0.0086080404 0.47704095 0 0
0.039999999 0.034971558 0.0086098146 0.47704095 0 0
0.039999999 0.036123298 0.0086116483 0.47704095 0 0
0.039999999 0.037275534 0.0086135417 0.47704095 0 0
0.039999999 0.038428288 0.0086154947 0.47704095 0 0
0.039999999 0.039581574 0.0086175082 0.47704095 0 0
0.039999999 0.040735405 0.0086195813 0.47704095 0 0
0.039999999 0.041889802 0.008621715 0.47704095 0 0
0.039999999 0.043044776 0.0086239083 0.47704095 0 0
0.039999999 0.044200346 0.0086261621 0.47704095 0 0
0.039999999 0.045356527 0.0086284764 0.47704095 0 0
0.039999999 0.046513338 0.0086308504 0.47704095 0 0
0.039999999 0.047670793 0.0086332858 0.47704095 0 0
0.039999999 0.048828911 0.0086357817 0.47704095 0 0
0.039999999 0.049987704 0.0086383373 0.47704095 0 0
0.039999999 0.051147193 0.0086409543 0.47704095 0 0
0.039999999 0.052307393 0.0086436328 0.47704095 0 0
0.039999999 0.053468321 0.0086463718 0.47704095 0 0
0.039999999 0.054629989 0.0086491713 0.47704095 0 0
0.039999999 0.055792421 0.0086520324 0.47704095 0 0
0.039999999 0.056955628 0.0086549548 0.47704095 0 0
0.039999999 0.058119632 0.0086579379 0.47704095 0 0
0.039999999 0.059284445 0.0086609833 0.47704095 0 0
0.039999999 0.060450085 0.0086640902 0.47704095 0 0
0.039999999 0.06161657 0.0086672576 0.47704095 0 0
0.039999999 0.062783919 0.0086704884 0.47704095 0 0
0.039999999 0.063952141 0.0086737797 0.47704095 0 0
0.039999999 0.065121263 0.0086771334 0.47704095 0 0
0.039999999 0.066291295 0.0086805495 0.47704095 0 0
0.039999999 0.067462258 0.0086840279 0.47704095 0 0
0.039999999 0.068634167 0.0086875688 0.47704095 0 0
0.039999999 0.069807045 0.0086911712 0.47704095 0 0
0.039999999 0.070980899 0.0086948369 0.47704095 0 0
0.039999999 0.072155751 0.0086985659 0.47704095 0 0
0.039999999 0.073331617 0.0087023564 0.47704095 0 0
0.039999999 0.074508525 0.0087062111 0.47704095 0 0
0.039999999 0.075686477 0.0087101283 0.47704095 0 0
0.039999999 0.076865502 0.0087141087 0.47704095 0 0
0.039999999 0.078045607 0.0087181535 0.47704095 0 0
0.039999999 0.079226822 0.0087222606 0.47704095 0 0
0.039999999 0.00057208556 0.0074378327 0.47704095 0 0
0.039999999 0.0017162645 0.0074378834 0.47704095 0 0
0.039999999 0.0028604672 0.0074379854 0.47704095 0 0
0.039999999 0.004004709 0.0074381386 0.47704095 0 0
0.039999999 0.0051490054 0.0074383426 0.47704095 0 0
0.039999999 0.0062933727 0.0074385973 0.47704095 0 0
0.039999999 0.0074378261 0.0074389032 0.47704095 0 0
0.039999999 0.0085823815 0.0074392604 0.47704095 0 0
0.039999999 0.0097270552 0.0074396683 0.47704095 0 0
0.039999999 0.010871861 0.007440127 0.47704095 0 0
0.039999999 0.012016817 0.0074406373 0.47704095 0 0
0.039999999 0.013161938 0.0074411985 0.47704095 0 0
0.039999999 0.014307239 0.0074418108 0.47704095 0 0
0.039999999 0.015452736 0.0074424739 0.47704095 0 0
0.039999999 0.016598446 0.0074431882 0.47704095 0 0
0.039999999 0.017744383 0.0074439542 0.47704095 0 0
0.039999999 0.018890565 0.007444771 0.47704095 0 0
0.039999999 0.020037005 0.007445639 0.47704095 0 0
0.039999999 0.02118372 0.0074465582 0.47704095 0 0
0.039999999 0.022330727 0.0074475291 0.47704095 0 0
0.039999999 0.02347804 0.0074485508 0.47704095 0 0
0.039999999 0.024625678 0.0074496241 0.47704095 0 0
0.039999999 0.025773652 0.0074507487 0.47704095 0 0
0.039999999 0.026921982 0.0074519245 0.47704095 0 0
0.039999999 0.028070683 0.0074531524 0.47704095 0 0
0.039999999 0.029219769 0.0074544312 0.47704095 0 0
0.039999999 0.030369258 0.007455762 0.47704095 0 0
0.039999999 0.031519163 0.0074571441 0.47704095 0 0
0.039999999 0.032669507 0.0074585779 0.47704095 0 0
0.039999999 0.033820298 0.0074600633 0.47704095 0 0
0.039999999 0.034971558 0.0074616005 0.47704095 0 0
0.039999999 0.036123298 0.0074631893 0.47704095 0 0
0.039999999 0.037275534 0.0074648303 0.47704095 0 0
0.039999999 0.038428288 0.007466523 0.47704095 0 0
0.039999999 0.039581574 0.0074682678 0.47704095 0 0
0.039999999 0.040735405 0.0074700648 0.47704095 0 0
0.039999999 0.041889802 0.0074719135 0.47704095 0 0
0.039999999 0.043044776 0.0074738148 0.47704095 0 0
0.039999999 0.044200346 0.0074757678 0.47704095 0 0
0.039999999 0.045356527 0.0074777734 0.47704095 0 0
0.039999999 0.046513338 0.0074798311 0.47704095 0 0
0.039999999 0.047670793 0.0074819415 0.47704095 0 0
0.039999999 0.048828911 0.0074841045 0.47704095 0 0
0.039999999 0.049987704 0.0074863196 0.47704095 0 0
0.039999999 0.051147193 0.0074885879 0.47704095 0 0
0.039999999 0.052307393 0.0074909087 0.47704095 0 0
0.039999999 0.053468321 0.0074932822 0.47704095 0 0
0.039999999 0.054629989 0.0074957088 0.47704095 0 0
0.039999999 0.055792421 0.0074981879 0.47704095 0 0
0.039999999 0.056955628 0.0075007207 0.47704095 0 0
0.039999999 0.058119632 0.0075033065 0.47704095 0 0
0.039999999 0.059284445 0.0075059454 0.47704095 0 0
0.039999999 0.060450085 0.0075086374 0.47704095 0 0
0.039999999 0.06161657 0.0075113834 0.47704095 0 0
0.039999999 0.062783919 0.0075141825 0.47704095 0 0
0.039999999 0.063952141 0.0075170356 0.47704095 0 0
0.039999999 0.065121263 0.0075199418 0.47704095 0 0
0.039999999 0.066291295 0.0075229025 0.47704095 0 0
0.039999999 0.067462258 0.0075259167 0.47704095 0 0
0.039999999 0.068634167 0.0075289849 0.47704095 0 0
0.039999999 0.069807045 0.0075321076 0.47704095 0 0
0.039999999 0.070980899 0.0075352844 0.47704095 0 0
0.039999999 0.072155751 0.0075385156 0.47704095 0 0
0.039999999 0.073331617 0.0075418013 0.47704095 0 0
0.039999999 0.074508525 0.0075451415 0.47704095 0 0
0.039999999 0.075686477 0.0075485366 0.47704095 0 0
0.039999999 0.076865502 0.0075519863 0.47704095 0 0
0.039999999 0.078045607 0.0075554913 0.47704095 0 0
0.039999999 0.079226822 0.0075590508 0.47704095 0 0
0.039999999 0.00057208556 0.0062933778 0.47704095 0 0
0.039999999 0.0017162645 0.0062934211 0.47704095 0 0
0.039999999 0.0028604672 0.0062935073 0.47704095 0 0
0.039999999 0.004004709 0.0062936367 0.47704095 0 0
0.039999999 0.0051490054 0.0062938095 0.47704095 0 0
0.039999999 0.0062933727 0.0062940251 0.47704095 0 0
0.039999999 0.0074378261 0.006294284 0.47704095 0 0
0.039999999 0.0085823815 0.0062945858 0.47704095 0 0
